# .PCD v0.7 - Point Cloud Data file format
VERSION 0.7
FIELDS x y z
SIZE 4 4 4
TYPE F F F
COUNT 1 1 1
WIDTH 1360
HEIGHT 1
VIEWPOINT 0 0 0 1 0 0 0
POINTS 1360
DATA ascii
0.068875559 -0.14388855 0.75593269
0.070350088 -0.14411524 0.75712365
0.071829274 -0.14434263 0.75831831
0.073313132 -0.14457075 0.75951678
0.075188234 -0.14554787 0.76465011
-0.021658724 -0.14602172 0.77448064
-0.020149754 -0.1452172 0.77021354
-0.018701445 -0.14476304 0.76780474
-0.017278994 -0.14445238 0.76615703
-0.015862878 -0.14414528 0.76452821
-0.014457938 -0.14389092 0.76317906
-0.013057949 -0.14363743 0.76183468
-0.011669661 -0.14346819 0.76093698
-0.010285951 -0.14331758 0.76013821
-0.008906859 -0.14319488 0.75948745
-0.0075333458 -0.14313358 0.75916225
-0.006161009 -0.14307232 0.75883734
-0.0047900989 -0.14301866 0.75855279
-0.0034202752 -0.14296749 0.75828141
-0.0020514312 -0.14291638 0.75801027
-0.00068364805 -0.14288244 0.75783026
0.0006838158 -0.1429175 0.75801623
0.0020520419 -0.14295891 0.75823587
0.003421061 -0.14300035 0.75845563
0.0047908737 -0.1430418 0.75867552
0.0061614811 -0.14308329 0.75889552
0.0075328839 -0.1431248 0.7591157
0.008905082 -0.14316632 0.75933594
0.010278078 -0.14320788 0.75955635
0.01165187 -0.14324947 0.75977689
0.01302646 -0.14329106 0.75999755
0.014404492 -0.14335899 0.7603578
0.015786268 -0.14344914 0.76083595
0.017169783 -0.14353938 0.76131463
0.018548273 -0.14357737 0.76151609
0.019924069 -0.1435907 0.76158679
0.021270761 -0.14340611 0.76060772
0.022604799 -0.14316373 0.75932217
0.023934335 -0.14292216 0.75804096
0.025262317 -0.14269795 0.75685173
0.026605977 -0.14258075 0.75623012
0.027947431 -0.14246373 0.75560951
0.029286686 -0.14234692 0.75498992
0.030623747 -0.14223029 0.75437135
0.031958617 -0.14211385 0.75375378
0.033296619 -0.14202027 0.75325745
0.03463861 -0.14195037 0.75288671
0.035979275 -0.14188053 0.75251627
0.037318625 -0.14181076 0.75214624
0.038656656 -0.14174107 0.75177658
0.039993461 -0.14167175 0.75140893
0.041340027 -0.14164042 0.75124276
0.042685993 -0.14160909 0.75107658
0.044031367 -0.14157778 0.75091052
0.045376144 -0.14154649 0.75074452
0.046720333 -0.14151521 0.75057864
0.048066873 -0.14149264 0.7504589
0.049417011 -0.14148158 0.7504003
0.050782241 -0.14151317 0.75056785
0.052157767 -0.14157109 0.750875
0.053534426 -0.14162906 0.75118244
0.054912206 -0.14168705 0.75149006
0.056291118 -0.14174511 0.75179797
0.05767116 -0.14180321 0.75210613
0.059052333 -0.14186135 0.75241452
0.06043436 -0.14191888 0.7527197
0.061834767 -0.14201611 0.7532354
0.063243441 -0.14212774 0.75382739
0.064654328 -0.14223953 0.75442034
0.066067442 -0.14235151 0.75501424
0.067502461 -0.1425052 0.75582945
0.068974629 -0.14272968 0.75702006
0.070451438 -0.14295486 0.75821435
0.071932919 -0.14318076 0.75941253
0.073517874 -0.14360033 0.76163787
-0.021699971 -0.1448998 0.7759555
-0.020183893 -0.14407124 0.77151841
-0.018715147 -0.1434828 0.76836729
-0.017291624 -0.14317465 0.76671714
-0.015874233 -0.1428681 0.7650755
-0.01446827 -0.14261581 0.76372445
-0.013067264 -0.1423644 0.76237816
-0.01167468 -0.14215639 0.76126426
-0.010290371 -0.14200711 0.76046485
-0.0089089656 -0.14185815 0.7596671
-0.0075328103 -0.14175379 0.75910825
-0.0061605703 -0.14169312 0.75878334
-0.0047896584 -0.14163704 0.75848305
-0.0034199611 -0.14158639 0.75821179
-0.0020512429 -0.14153576 0.75794065
-0.00068350323 -0.14148517 0.75766975
0.00068357657 -0.14150035 0.75775105
0.0020513239 -0.14154135 0.75797057
0.0034198635 -0.14158235 0.75819016
0.0047891964 -0.14162339 0.75840992
0.0061593233 -0.14166443 0.75862974
0.007530245 -0.14170551 0.75884974
0.0089019621 -0.14174663 0.75906986
0.010274475 -0.14178775 0.7592901
0.011647785 -0.14182891 0.75951052
0.013021892 -0.14187008 0.75973099
0.014396797 -0.14191128 0.75995165
0.015774475 -0.14197028 0.76026756
0.017156335 -0.14205444 0.76071829
0.018530559 -0.14206761 0.7607888
0.019905038 -0.14208078 0.76085937
0.021252584 -0.14191242 0.75995767
0.022585513 -0.14167276 0.75867432
0.023913946 -0.14143391 0.75739527
0.025257656 -0.14130634 0.75671214
0.026601072 -0.14119031 0.7560907
0.027942283 -0.14107446 0.75547034
0.029281298 -0.1409588 0.75485098
0.030618116 -0.14084333 0.75423265
0.031952746 -0.14072806 0.75361532
0.033285197 -0.14061297 0.75299901
0.034623802 -0.14053191 0.75256491
0.035963904 -0.1404628 0.75219482
0.037302691 -0.14039376 0.75182515
0.03864016 -0.14032479 0.75145578
0.039982319 -0.14027695 0.7511996
0.041328516 -0.14024594 0.75103354
0.042674109 -0.14021493 0.75086749
0.044019111 -0.14018394 0.75070149
0.04536546 -0.14015897 0.75056773
0.046716005 -0.14014801 0.75050914
0.048066344 -0.14013709 0.75045061
0.049427215 -0.14015663 0.75055522
0.050802164 -0.14021398 0.75086236
0.052178241 -0.14027138 0.75116974
0.053555444 -0.14032882 0.75147736
0.054933779 -0.14038631 0.75178528
0.056313239 -0.14044386 0.75209343
0.057693284 -0.14050011 0.75239468
0.059068635 -0.14054261 0.75262225
0.060464948 -0.14063196 0.75310069
0.061885014 -0.1407714 0.75384748
0.06329488 -0.14088215 0.75444049
0.064706951 -0.14099304 0.75503439
0.066129744 -0.14112224 0.75572622
0.067599542 -0.1413445 0.75691646
0.069073983 -0.14156747 0.75811046
0.070561595 -0.14180826 0.75939989
0.07209345 -0.14212708 0.76110727
-0.020220909 -0.14294091 0.77293336
-0.018740896 -0.14229198 0.76942438
-0.017304275 -0.14189506 0.76727808
-0.015885793 -0.14159076 0.76563263
-0.014478617 -0.14133888 0.7642706
-0.013076593 -0.14108956 0.76292241
-0.011679703 -0.14084348 0.76159179
-0.010294794 -0.14069551 0.76079172
-0.0089127915 -0.14054787 0.75999331
-0.0075336867 -0.14040053 0.75919658
-0.0061601326 -0.14031413 0.7587294
-0.0047892183 -0.14025569 0.75841337
-0.0034196468 -0.14020552 0.75814211
-0.0020510545 -0.1401554 0.75787109
-0.00068348111 -0.14011362 0.75764519
0.00068361429 -0.14014092 0.75779283
0.0020513611 -0.14017634 0.75798434
0.0034198377 -0.14021334 0.75818443
0.0047890372 -0.14025037 0.75838464
0.0061589596 -0.14028741 0.75858492
0.0075296061 -0.14032447 0.75878537
0.0089009767 -0.14036156 0.75898588
0.010273073 -0.14039867 0.75918651
0.011645894 -0.14043577 0.7593872
0.013019442 -0.14047292 0.75958806
0.014393715 -0.14051008 0.75978899
0.015768718 -0.14054726 0.75999004
0.017139966 -0.14054771 0.75999248
0.018512879 -0.14056075 0.76006293
0.019886045 -0.14057375 0.76013333
0.021234434 -0.14042126 0.7593087
0.022566259 -0.14018433 0.75802755
0.023907617 -0.14003032 0.75719476
0.025252998 -0.13991526 0.75657254
0.02659617 -0.13980038 0.7559514
0.027937138 -0.13968569 0.75533122
0.029275909 -0.13957119 0.7547121
0.030612487 -0.13945688 0.754094
0.031946879 -0.13934277 0.75347692
0.033279084 -0.13922882 0.75286078
0.034609117 -0.13911508 0.75224572
0.035948548 -0.13904628 0.75187367
0.03728677 -0.13897796 0.75150424
0.038624775 -0.13891366 0.75115657
0.039971188 -0.13888294 0.75099045
0.041317008 -0.13885224 0.75082445
0.042663261 -0.1388249 0.75067657
0.044014215 -0.13881406 0.75061798
0.045364961 -0.13880323 0.75055945
0.046715491 -0.1387924 0.75050086
0.04807223 -0.1388001 0.75054252
0.049446605 -0.1388569 0.75084966
0.050822102 -0.13891375 0.75115705
0.052198727 -0.13897064 0.75146466
0.053576477 -0.13902757 0.75177252
0.054954574 -0.13908257 0.75206989
0.056328502 -0.13912462 0.75229728
0.05770326 -0.1391667 0.75252479
0.05907885 -0.13920879 0.75275242
0.06052652 -0.13941501 0.75386757
0.061935347 -0.13952468 0.75446057
0.063346393 -0.13963452 0.75505453
0.064759664 -0.13974454 0.75564939
0.066224836 -0.13995971 0.75681293
0.067696907 -0.14018047 0.75800663
0.069191359 -0.1404379 0.7593987
0.070720129 -0.14075366 0.76110607
0.072547488 -0.14164034 0.76590067
-0.020259337 -0.14181536 0.77440226
-0.018772613 -0.14114225 0.77072662
-0.017316945 -0.1406136 0.76783985
-0.015897399 -0.14031184 0.76619202
-0.014488979 -0.14006013 0.7648176
-0.013085934 -0.13981289 0.76346743
-0.011687835 -0.1395665 0.76212204
-0.010299222 -0.13938279 0.76111889
-0.0089166202 -0.13923645 0.76031977
-0.0075369198 -0.13909043 0.75952238
-0.0061601098 -0.1389447 0.7587266
-0.0047888239 -0.1388759 0.75835091
-0.0034193327 -0.13882491 0.7580725
-0.0020508661 -0.13877527 0.75780147
-0.0006836885 -0.13878877 0.75787514
0.0006838218 -0.13881582 0.75802284
0.0020518654 -0.1388429 0.75817066
0.0034206214 -0.13887723 0.75835818
0.0047901347 -0.1389139 0.75855845
0.0061603715 -0.1389506 0.75875884
0.0075313328 -0.13898732 0.75895935
0.0089030191 -0.13902406 0.75915998
0.010275429 -0.13906081 0.75936067
0.011648567 -0.1390976 0.75956154
0.013022431 -0.13913439 0.75976247
0.01439702 -0.1391712 0.75996345
0.015772339 -0.13920803 0.76016462
0.01713649 -0.13914829 0.7598384
0.018495232 -0.13905674 0.75933844
0.019867087 -0.13906962 0.75940871
0.021216318 -0.13893266 0.75866091
0.022555852 -0.13875267 0.75767797
0.023903202 -0.13863857 0.75705498
0.025248341 -0.13852468 0.75643307
0.026591269 -0.13841097 0.75581211
0.027931998 -0.13829745 0.75519222
0.029270524 -0.1381841 0.75457329
0.030606862 -0.13807096 0.75395542
0.031941012 -0.13795799 0.75333852
0.033272982 -0.1378452 0.75272268
0.034602772 -0.13773261 0.7521078
0.035933208 -0.13763095 0.75155276
0.037270863 -0.13756338 0.75118369
0.038614016 -0.13752009 0.75094736
0.039960276 -0.13749045 0.75078547
0.04131164 -0.13747972 0.75072688
0.042662788 -0.13746899 0.75066829
0.044013727 -0.13745826 0.7506097
0.045364458 -0.13744754 0.75055116
0.046717294 -0.13744363 0.75052983
0.048091091 -0.13749988 0.75083697
0.04946601 -0.13755617 0.75114435
0.050842058 -0.13761251 0.75145197
0.052218229 -0.13766624 0.7517454
0.053590734 -0.13770783 0.75197256
0.054964073 -0.13774946 0.75219989
0.056338243 -0.13779113 0.75242734
0.057713244 -0.13783281 0.75265497
0.059137337 -0.13798712 0.7534976
0.060575746 -0.13816716 0.75448072
0.061985761 -0.13827592 0.75507468
0.063397996 -0.13838486 0.75566959
0.064850502 -0.13857529 0.7567094
0.066320203 -0.13879383 0.75790274
0.067821123 -0.13906756 0.75939751
0.069346815 -0.13938025 0.76110494
0.070884824 -0.13970505 0.7628786
-0.020297913 -0.14068554 0.77587682
-0.01880444 -0.13998862 0.77203327
-0.017334921 -0.13937277 0.76863688
-0.015909022 -0.13903102 0.76675218
-0.014499355 -0.13877954 0.7653653
-0.013095289 -0.13853438 0.76401323
-0.011696176 -0.13829008 0.76266593
-0.010303653 -0.13806894 0.76144636
-0.0089204516 -0.13792391 0.76064652
-0.0075401552 -0.13777919 0.75984842
-0.0061627515 -0.13763478 0.75905198
-0.0047884835 -0.13749789 0.75829697
-0.0034190188 -0.13744456 0.75800288
-0.0020512883 -0.13743632 0.75795746
-0.00068389607 -0.13746311 0.75810522
0.00068402942 -0.13748991 0.75825304
0.0020524885 -0.13751672 0.75840092
0.0034214815 -0.13754356 0.75854886
0.0047912328 -0.13757683 0.75873238
0.0061617848 -0.13761319 0.75893289
0.0075330604 -0.13764955 0.75913346
0.0089050615 -0.13768594 0.75933415
0.010277788 -0.13772236 0.75953496
0.011651241 -0.13775879 0.75973588
0.013025422 -0.13779524 0.75993693
0.014400328 -0.13783172 0.76013803
0.015775964 -0.1378682 0.76033926
0.017135926 -0.13777284 0.75981337
0.018493317 -0.13767247 0.75925982
0.019848734 -0.13757226 0.75870717
0.021202361 -0.13747337 0.75816184
0.022551687 -0.13736027 0.75753808
0.023898793 -0.13724735 0.75691533
0.025243687 -0.13713463 0.75629359
0.026586371 -0.13702206 0.75567287
0.027926857 -0.13690971 0.75505322
0.029265143 -0.13679752 0.75443453
0.030601239 -0.13668554 0.7538169
0.031935148 -0.13657372 0.75320023
0.033266876 -0.13646208 0.75258458
0.034596428 -0.13635063 0.75196993
0.035923813 -0.13623936 0.7513563
0.037257005 -0.13615741 0.75090432
0.038608283 -0.136145 0.75083584
0.039959837 -0.13613436 0.75077718
0.041311182 -0.13612373 0.75071859
0.042662319 -0.13611311 0.75066
0.044013247 -0.1361025 0.75060147
0.045363959 -0.13609187 0.75054288
0.046735622 -0.13614289 0.75082427
0.048109964 -0.13619864 0.75113165
0.049484242 -0.13625112 0.75142115
0.050855327 -0.13629228 0.75164813
0.052227251 -0.13633347 0.75187528
0.053599998 -0.13637468 0.75210255
0.054973576 -0.13641591 0.75232995
0.056347985 -0.13645716 0.75255746
0.057748154 -0.1365574 0.75311023
0.059198998 -0.1367701 0.75428325
0.060625054 -0.13691725 0.75509483
0.062036257 -0.13702513 0.7556898
0.063476548 -0.13719125 0.75660592
0.06494388 -0.13740759 0.75779897
0.066450901 -0.13769723 0.75939637
0.067973509 -0.13800682 0.76110375
0.069502972 -0.13831781 0.76281881
-0.018836373 -0.13883105 0.77334434
-0.01736423 -0.13821927 0.76993644
-0.015920661 -0.13774833 0.76731318
-0.014509747 -0.13749713 0.76591384
-0.013104658 -0.13725404 0.76455981
-0.011704528 -0.13701183 0.76321054
-0.010309331 -0.13677046 0.76186603
-0.0089242877 -0.13661025 0.76097357
-0.0075433939 -0.13646686 0.76017481
-0.0061653955 -0.13632375 0.75937766
-0.0047902847 -0.13618095 0.75858223
-0.0034191855 -0.13608359 0.75803983
-0.0020519113 -0.13611011 0.75818765
-0.00068410381 -0.13613665 0.75833547
0.00068423717 -0.1361632 0.75848335
0.002053112 -0.13618977 0.75863135
0.0034225211 -0.13621634 0.75877935
0.0047924644 -0.13624291 0.7589274
0.0061631976 -0.13627514 0.75910693
0.0075347885 -0.13631117 0.75930762
0.0089071048 -0.13634722 0.75950843
0.010280147 -0.13638328 0.7597093
0.011653917 -0.13641937 0.75991035
0.013028412 -0.13645548 0.76011145
0.014403637 -0.1364916 0.76031268
0.015776033 -0.13649698 0.7603426
0.017135361 -0.13639747 0.75978833
0.018492708 -0.13629811 0.75923485
0.019848375 -0.13620092 0.75869346
0.021208772 -0.13614663 0.75839108
0.022557085 -0.13602605 0.7577194
0.02390473 -0.13591546 0.75710332
0.025250183 -0.13580504 0.75648826
0.026593454 -0.1356948 0.75587422
0.027934548 -0.13558476 0.75526118
0.029273467 -0.13547489 0.75464916
0.030610219 -0.13536519 0.7540381
0.031944804 -0.13525566 0.75342798
0.033277232 -0.13514632 0.75281888
0.034607511 -0.13503715 0.7522108
0.03593564 -0.13492815 0.75160366
0.037270203 -0.13485037 0.75117034
0.038612362 -0.13480456 0.75091517
0.039959397 -0.13477831 0.7507689
0.041310728 -0.13476779 0.75071031
0.042661846 -0.13475727 0.75065172
0.044012759 -0.13474676 0.75059319
0.045380197 -0.13478597 0.75081158
0.046752609 -0.13483724 0.7510972
0.048122283 -0.13487795 0.751324
0.049492788 -0.1349187 0.75155097
0.050864115 -0.13495946 0.75177801
0.052236278 -0.13500024 0.75200522
0.053609263 -0.13504106 0.75223255
0.054983083 -0.1350819 0.75246006
0.05636039 -0.13512912 0.75272316
0.057808328 -0.1353395 0.75389498
0.059260782 -0.13555053 0.75507051
0.06067444 -0.13566531 0.75570995
0.06210297 -0.13580759 0.75650245
0.063567959 -0.13602175 0.75769544
0.06508068 -0.13632689 0.75939518
0.066600204 -0.1366334 0.76110256
0.068126574 -0.1369413 0.76281768
0.069898084 -0.13771999 0.76715529
-0.018868417 -0.13766956 0.77465987
-0.017393637 -0.13706186 0.77124041
-0.01593232 -0.13646378 0.76787502
-0.014520153 -0.13621287 0.76646316
-0.01311404 -0.13597189 0.76510715
-0.011712893 -0.13573176 0.76375598
-0.010316687 -0.13549247 0.76240957
-0.0089281267 -0.13529545 0.76130092
-0.0075466353 -0.13515337 0.76050144
-0.0061680423 -0.1350116 0.75970364
-0.0047927084 -0.13488051 0.75896603
-0.0034214412 -0.13480479 0.75853992
-0.0020528443 -0.13480344 0.7585324
-0.00068431167 -0.1348094 0.7585659
0.00068444514 -0.13483569 0.75871384
0.002053736 -0.13486201 0.7588619
0.0034235616 -0.13488832 0.75901002
0.0047939215 -0.13491465 0.75915813
0.0061648167 -0.134941 0.75930637
0.0075365179 -0.13497218 0.75948191
0.00890915 -0.13500789 0.75968277
0.010282508 -0.13504361 0.75988376
0.011656593 -0.13507934 0.76008487
0.013031406 -0.1351151 0.76028609
0.014406946 -0.13515088 0.76048738
0.015775513 -0.13512069 0.76031756
0.017134797 -0.13502219 0.7597633
0.018492101 -0.13492385 0.75920987
0.019853622 -0.13486771 0.75889403
0.021214856 -0.13481699 0.75860858
0.022571979 -0.13474788 0.75821972
0.023917289 -0.13462017 0.75750113
0.025262492 -0.13450569 0.75685698
0.026606407 -0.13439646 0.75624233
0.027948141 -0.13428742 0.75562871
0.0292877 -0.13417853 0.75501603
0.030625086 -0.13406983 0.75440437
0.031960312 -0.13396131 0.75379372
0.033293374 -0.13385294 0.75318402
0.034624282 -0.13374478 0.75257534
0.035953041 -0.13363677 0.75196761
0.037292019 -0.13357323 0.75161004
0.038634956 -0.13352783 0.75135458
0.039976977 -0.13348246 0.75109923
0.041318092 -0.13343711 0.75084412
0.042661376 -0.13340145 0.75064343
0.044023335 -0.13342457 0.75077355
0.045391597 -0.13346484 0.75100017
0.046760682 -0.13350514 0.7512269
0.048130594 -0.13354546 0.75145376
0.049501337 -0.1335858 0.75168079
0.050872907 -0.13362618 0.75190794
0.052245308 -0.13366656 0.75213522
0.053618532 -0.13370697 0.75236261
0.054992594 -0.13374741 0.75259018
0.056419097 -0.13391039 0.7535072
0.057868633 -0.13411908 0.75468147
0.059312556 -0.13430543 0.75573015
0.060729764 -0.13442431 0.75639904
0.062200811 -0.13465451 0.7576943
0.063710466 -0.13495657 0.75939405
0.065226905 -0.13526 0.76110142
0.066750176 -0.13556479 0.76281649
0.068280332 -0.13587096 0.7645393
-0.017427316 -0.13593306 0.77273369
-0.015961567 -0.13532633 0.76928461
-0.014531837 -0.13493849 0.76707989
-0.013123436 -0.13468789 0.76565534
-0.011721269 -0.13444985 0.76430219
-0.010324052 -0.13421267 0.76295388
-0.0089319684 -0.13397953 0.76162851
-0.0075498787 -0.13383876 0.76082832
-0.0061708884 -0.13370258 0.76005417
-0.0047968812 -0.13362741 0.75962687
-0.0034244186 -0.13355233 0.75920004
-0.0020541821 -0.13352184 0.75902671
-0.0006847576 -0.13352773 0.7590602
0.00068478787 -0.13353363 0.75909376
0.0020544543 -0.13353953 0.75912726
0.0034246026 -0.1335595 0.75924081
0.0047953795 -0.13358557 0.75938904
0.0061666919 -0.13361166 0.75953734
0.0075385403 -0.13363776 0.7596857
0.0089111952 -0.13366793 0.75985718
0.010284869 -0.13370331 0.76005828
0.01165927 -0.1337387 0.76025945
0.013034401 -0.1337741 0.76046079
0.014410258 -0.13380954 0.7606622
0.015774991 -0.13374449 0.76029247
0.017134232 -0.13364701 0.75973827
0.018496256 -0.13358408 0.75938052
0.019858873 -0.13353381 0.75909472
0.021220464 -0.13348356 0.75880915
0.02258103 -0.13343336 0.75852376
0.023934573 -0.13334976 0.75804853
0.025278285 -0.1332234 0.75733018
0.026619457 -0.13309728 0.75661325
0.027961746 -0.1329888 0.75599653
0.029301943 -0.13288091 0.75538325
0.030639971 -0.13277321 0.75477099
0.031975832 -0.13266568 0.75415975
0.033309527 -0.13255832 0.75354946
0.034641068 -0.13245115 0.75294018
0.035970461 -0.13234414 0.75233191
0.03731386 -0.1322946 0.75205028
0.038657576 -0.13224961 0.75179452
0.040000379 -0.13220464 0.75153887
0.041342266 -0.13215971 0.75128347
0.042696349 -0.13215537 0.75125879
0.044059582 -0.13217875 0.75139171
0.045427058 -0.13221307 0.75158685
0.046795242 -0.13224743 0.75178212
0.048164137 -0.13228178 0.75197744
0.049533747 -0.13231617 0.75217295
0.050904065 -0.13235056 0.75236845
0.052275099 -0.13238499 0.75256413
0.053646844 -0.13241942 0.75275987
0.055042233 -0.13250908 0.75326955
0.056477915 -0.13268909 0.75429279
0.057929061 -0.13289608 0.7554695
0.05936091 -0.13305032 0.75634629
0.060833663 -0.13328724 0.75769311
0.062340248 -0.13358624 0.75939286
0.063853607 -0.13388659 0.76110023
0.065373786 -0.13418829 0.7628153
0.066900827 -0.13449135 0.76453811
-0.017462676 -0.13481185 0.77430159
-0.015993809 -0.13420892 0.77083856
-0.014548422 -0.13370693 0.76795536
-0.013137446 -0.13344879 0.76647276
-0.011731907 -0.13319165 0.76499581
-0.010331774 -0.13293549 0.76352459
-0.0089381244 -0.13269678 0.76215345
-0.0075531262 -0.13252303 0.76115555
-0.0061762691 -0.13244666 0.76071692
-0.0048010619 -0.13237214 0.76028889
-0.0034274012 -0.13229769 0.75986129
-0.0020555214 -0.13223855 0.7595216
-0.00068520411 -0.13224439 0.75955516
0.00068523438 -0.13225023 0.75958872
0.002055794 -0.13225609 0.75962234
0.0034264748 -0.13226193 0.75965589
0.004797277 -0.13226777 0.75968951
0.0061685685 -0.13228153 0.75976843
0.0075408346 -0.13230737 0.7599169
0.0089136371 -0.13233323 0.76006544
0.010287232 -0.13236238 0.76023287
0.01166195 -0.13239743 0.76043415
0.013037396 -0.13243249 0.76063555
0.014413293 -0.13246503 0.76082242
0.015774474 -0.1323684 0.76026744
0.017137149 -0.1322988 0.75986767
0.018501151 -0.13224898 0.75958151
0.019864127 -0.13219918 0.75929552
0.021226075 -0.13214943 0.75900978
0.022586999 -0.13209972 0.75872427
0.0239469 -0.13205005 0.75843894
0.025296548 -0.13195227 0.75787735
0.02663867 -0.13182727 0.75715935
0.027978249 -0.1317025 0.75644273
0.029316206 -0.13158204 0.75575089
0.03065487 -0.13147533 0.75513804
0.031991366 -0.1313688 0.7545262
0.033325698 -0.13126245 0.75391531
0.034657873 -0.13115627 0.75330544
0.03599032 -0.13105908 0.7527473
0.037335727 -0.13101447 0.752491
0.038680226 -0.13096988 0.75223494
0.040026542 -0.13093428 0.75203049
0.041384708 -0.1309385 0.75205469
0.042742956 -0.13094272 0.75207889
0.044105969 -0.13096081 0.75218278
0.045474894 -0.13099486 0.75237834
0.046844531 -0.13102891 0.75257397
0.048214886 -0.131063 0.75276977
0.04958595 -0.13109711 0.75296563
0.050957724 -0.13113122 0.75316155
0.052330218 -0.13116536 0.75335765
0.053729638 -0.13126355 0.75392163
0.055144582 -0.13139388 0.7546702
0.056562334 -0.13152446 0.75542021
0.05798962 -0.13167055 0.75625926
0.059466526 -0.13191999 0.75769198
0.060970042 -0.13221593 0.75939173
0.062480312 -0.1325132 0.76109904
0.063997395 -0.1328118 0.7628141
0.06552133 -0.13311175 0.76453692
-0.017492617 -0.1336436 0.77562922
-0.01602618 -0.13308698 0.77239877
-0.014567316 -0.1324932 0.76895267
-0.013152428 -0.13221651 0.76734686
-0.011745261 -0.13196146 0.76586658
-0.010343513 -0.13170739 0.76439202
-0.0089471499 -0.13145429 0.76292306
-0.0075596133 -0.13126238 0.76180929
-0.0061816596 -0.13118856 0.76138085
-0.0048052496 -0.13111468 0.76095206
-0.0034303893 -0.13104087 0.76052374
-0.0020570757 -0.13096716 0.76009589
-0.0006856512 -0.13095938 0.76005077
0.00068568153 -0.13096517 0.76008439
0.0020571356 -0.13097095 0.76011801
0.0034287109 -0.13097675 0.76015162
0.0048004072 -0.13098255 0.76018524
0.0061722253 -0.13098834 0.76021886
0.007544165 -0.13099414 0.76025254
0.0089163519 -0.13100179 0.76029688
0.01029011 -0.1310274 0.76044554
0.01166463 -0.13105555 0.76060891
0.013040394 -0.13109027 0.76081043
0.014412818 -0.131088 0.76079732
0.015776299 -0.13101187 0.76035541
0.017141687 -0.13096249 0.76006883
0.018506048 -0.13091317 0.75978255
0.019869383 -0.13086386 0.75949645
0.021231689 -0.1308146 0.75921053
0.022592973 -0.13076538 0.7589249
0.023953229 -0.13071619 0.7586394
0.025312465 -0.13066705 0.75835419
0.026657911 -0.13055541 0.75770628
0.027998438 -0.13043176 0.75698858
0.029336432 -0.13030833 0.75627232
0.030671893 -0.13018514 0.75555736
0.032006919 -0.13007067 0.75489295
0.033341885 -0.12996531 0.75428146
0.034674693 -0.12986012 0.75367099
0.036011431 -0.12977704 0.75318885
0.037357621 -0.12973283 0.75293225
0.038710721 -0.12971486 0.752828
0.04007028 -0.12971905 0.75285226
0.041429933 -0.12972322 0.75287652
0.042789668 -0.12972741 0.75290078
0.04415245 -0.12974028 0.75297546
0.045522831 -0.12977405 0.75317144
0.046893928 -0.12980783 0.75336754
0.048265737 -0.12984163 0.7535637
0.04963826 -0.12987545 0.75375998
0.051011499 -0.12990928 0.75395632
0.052414767 -0.13001585 0.75457484
0.053829629 -0.13014506 0.75532466
0.055247307 -0.13027452 0.75607604
0.056672223 -0.1304144 0.75688785
0.058128469 -0.1306181 0.75807005
0.059607953 -0.13086343 0.75949395
0.061107028 -0.1311398 0.76109791
0.062621012 -0.13143532 0.76281297
0.06414184 -0.13173217 0.76453578
0.065669544 -0.13203034 0.76626635
-0.016058685 -0.1319605 0.77396536
-0.01459673 -0.13137056 0.77050531
-0.013167446 -0.13098143 0.76822299
-0.011758645 -0.13072847 0.76673931
-0.010355276 -0.13047647 0.76526135
-0.0089573069 -0.13022546 0.76378912
-0.0075674383 -0.13002235 0.76259786
-0.006187052 -0.1299281 0.76204503
-0.0048094448 -0.12985501 0.76161641
-0.0034333824 -0.12978186 0.76118731
-0.0020588697 -0.12970878 0.76075876
-0.00068609882 -0.12967268 0.76054698
0.00068612921 -0.12967841 0.76058066
0.0020584788 -0.12968417 0.76061434
0.0034309498 -0.1296899 0.76064801
0.0048035425 -0.12969564 0.76068169
0.0061762566 -0.12970139 0.76071537
0.0075490922 -0.12970713 0.76074904
0.0089220488 -0.12971286 0.76078272
0.010295128 -0.12971862 0.7608164
0.011668328 -0.12972435 0.76085007
0.013043392 -0.12974742 0.76098537
0.014413698 -0.12972328 0.76084375
0.015780479 -0.12967436 0.76055688
0.017146228 -0.12962548 0.76027018
0.018510949 -0.12957664 0.75998372
0.01987464 -0.12952784 0.75969744
0.021237306 -0.12947907 0.75941139
0.022598946 -0.12943032 0.75912559
0.023959562 -0.12938163 0.75883996
0.025319153 -0.12933297 0.75855458
0.026677182 -0.12928173 0.75825399
0.028018659 -0.12915918 0.75753528
0.029357597 -0.12903687 0.75681794
0.030693999 -0.12891479 0.75610191
0.032027878 -0.12879296 0.75538731
0.033359237 -0.12867135 0.75467402
0.034691527 -0.12856272 0.75403696
0.036032565 -0.12849349 0.75363088
0.037392106 -0.12849286 0.75362724
0.038753066 -0.12849702 0.75365156
0.04011412 -0.12850116 0.75367588
0.041475259 -0.1285053 0.7537002
0.042836484 -0.12850945 0.75372452
0.044199031 -0.12851718 0.75376987
0.045570873 -0.12855068 0.75396627
0.046943426 -0.12858416 0.75416273
0.048316695 -0.12861769 0.7543593
0.049690682 -0.12865122 0.754556
0.051097617 -0.128766 0.75522918
0.052512396 -0.12889406 0.75598031
0.053932752 -0.12902899 0.75677168
0.055365752 -0.12918675 0.75769699
0.056814834 -0.12937354 0.75879252
0.058293253 -0.12961677 0.76021904
0.059777249 -0.12986092 0.76165104
0.061266836 -0.13010597 0.76308835
0.062762342 -0.13035256 0.76453459
0.064286925 -0.13064761 0.76626515
-0.016084246 -0.13077192 0.77519733
-0.014626262 -0.13024338 0.77206421
-0.013182496 -0.12974352 0.76910108
-0.01177206 -0.12949266 0.76761407
-0.010367067 -0.12924276 0.76613271
-0.0089678755 -0.12899943 0.76469028
-0.0075769047 -0.12880738 0.76355183
-0.0061923494 -0.12866326 0.76269746
-0.0048136408 -0.12859298 0.76228088
-0.0034363805 -0.12852064 0.76185203
-0.0020606664 -0.1284482 0.76142269
-0.00068654708 -0.12838431 0.76104391
0.00068657746 -0.12838998 0.76107758
0.0020598238 -0.12839568 0.76111132
0.0034331915 -0.12840137 0.761145
0.0048066811 -0.12840705 0.76117873
0.0061802925 -0.12841274 0.76121247
0.0075540254 -0.12841843 0.7612462
0.0089278799 -0.12842412 0.76127988
0.010301856 -0.1284298 0.76131362
0.011675955 -0.12843549 0.76134735
0.013050284 -0.12844227 0.76138753
0.014421747 -0.12842223 0.76126868
0.015787313 -0.12835771 0.76088625
0.017151505 -0.12829326 0.76050419
0.018515851 -0.12823942 0.760185
0.019879902 -0.1281911 0.75989854
0.021242928 -0.12814282 0.75961238
0.022604926 -0.12809457 0.7593264
0.023965899 -0.12804636 0.75904065
0.025325846 -0.1279982 0.75875509
0.026684772 -0.12795006 0.75846976
0.028038908 -0.12788478 0.75808275
0.029378792 -0.12776358 0.75736433
0.030716142 -0.12764263 0.75664735
0.03205096 -0.1275219 0.75593168
0.033383254 -0.1274014 0.75521731
0.034726381 -0.12733006 0.75479448
0.036075473 -0.12728515 0.75452828
0.037433051 -0.12727238 0.75445253
0.038795508 -0.1272765 0.7544769
0.040158048 -0.12728059 0.75450122
0.041520678 -0.12728471 0.7545256
0.042883396 -0.12728882 0.75454998
0.044246204 -0.12729293 0.75457436
0.045619011 -0.1273247 0.75476271
0.046993032 -0.12735793 0.75495964
0.048367765 -0.12739116 0.75515664
0.049778178 -0.12751396 0.75588465
0.05119412 -0.127644 0.75665551
0.052623555 -0.12780006 0.75758058
0.054056488 -0.12795649 0.75850791
0.055498693 -0.12812661 0.7595163
0.05697605 -0.12836772 0.76094562
0.058458976 -0.12860975 0.7623803
0.059947509 -0.1288527 0.76382041
0.061441671 -0.12909654 0.76526594
0.062941507 -0.12934133 0.76671702
-0.014654333 -0.1290977 0.77354598
-0.013200858 -0.12853467 0.77017236
-0.011785504 -0.12825403 0.76849073
-0.010378884 -0.12800623 0.76700604
-0.008979124 -0.12777984 0.7656495
-0.0075863944 -0.12758936 0.76450813
-0.0061978111 -0.12739946 0.76337022
-0.0048177633 -0.12732661 0.76293373
-0.0034393794 -0.12725703 0.76251686
-0.0020624667 -0.12718545 0.76208788
-0.00068710133 -0.12711374 0.76165825
0.00068702636 -0.12709987 0.76157516
0.0020611705 -0.12710552 0.76160896
0.0034354364 -0.12711115 0.76164269
0.0048098238 -0.12711677 0.76167643
0.0061843339 -0.12712242 0.76171023
0.0075589651 -0.12712805 0.76174396
0.0089337183 -0.12713368 0.76177776
0.010308655 -0.12714007 0.76181602
0.011683821 -0.12714747 0.76186031
0.013059148 -0.12715486 0.7619046
0.014434634 -0.12716225 0.76194888
0.015803074 -0.12711169 0.76164591
0.017168622 -0.12704781 0.76126313
0.018532798 -0.12698399 0.76088071
0.019895602 -0.12692021 0.76049864
0.021257041 -0.12685654 0.76011705
0.022617111 -0.12679289 0.75973576
0.023975819 -0.12672934 0.75935489
0.025333166 -0.12666583 0.75897437
0.026691824 -0.12661506 0.75867021
0.028050086 -0.12656745 0.75838494
0.029400019 -0.12648846 0.75791156
0.030738313 -0.12636861 0.75719351
0.032092545 -0.12632172 0.75691247
0.033446353 -0.12627704 0.75664479
0.034799203 -0.1262324 0.75637728
0.036151096 -0.12618779 0.75610995
0.037502032 -0.1261432 0.7558428
0.038852017 -0.12609865 0.7555759
0.040202074 -0.12605736 0.75532842
0.041566201 -0.12606142 0.75535285
0.042930417 -0.12606551 0.75537729
0.044294719 -0.12606959 0.75540173
0.045667253 -0.12609614 0.75556087
0.047044653 -0.12613422 0.75578898
0.048456449 -0.12625976 0.75654125
0.049882203 -0.12641379 0.75746423
0.05131156 -0.12656851 0.75839126
0.052744418 -0.1267236 0.75932056
0.054180797 -0.12687908 0.76025218
0.055656321 -0.12711629 0.76167351
0.057138178 -0.12735619 0.76311094
0.058625638 -0.12759697 0.76455379
0.060203716 -0.12801939 0.7670849
-0.014677443 -0.12790343 0.77476585
-0.013227554 -0.12740223 0.77172989
-0.011798981 -0.12701257 0.76936948
-0.01039073 -0.12676689 0.76788139
-0.0089904014 -0.12655719 0.7666111
-0.0075959084 -0.1263683 0.76546687
-0.0062055723 -0.12617996 0.7643261
-0.0048218933 -0.12605807 0.76358771
-0.0034423259 -0.12598912 0.76317012
-0.0020642667 -0.12592027 0.76275301
-0.00068770174 -0.12584943 0.76232386
0.00068747584 -0.12580808 0.7620734
0.0020625188 -0.12581365 0.76210719
0.0034376842 -0.12581925 0.76214105
0.0048129712 -0.12582482 0.76217484
0.0061883805 -0.1258304 0.76220864
0.007563937 -0.1258364 0.762245
0.0089397179 -0.12584372 0.76228935
0.010315659 -0.12585105 0.76233369
0.011691761 -0.12585837 0.76237804
0.013068022 -0.12586568 0.76242238
0.014444443 -0.12587301 0.76246673
0.015818868 -0.12586316 0.76240712
0.017185772 -0.12579985 0.76202357
0.018551299 -0.12573659 0.76164037
0.019915456 -0.1256734 0.76125759
0.021278242 -0.12561026 0.76087517
0.022639658 -0.1255472 0.76049316
0.02399971 -0.1254842 0.76011151
0.025358396 -0.12542126 0.75973028
0.02671572 -0.12535839 0.75934941
0.02807164 -0.12529537 0.7589677
0.029424479 -0.12522511 0.75854212
0.030789705 -0.12521148 0.75845951
0.032156296 -0.12520431 0.75841612
0.03351358 -0.12516296 0.75816566
0.034869965 -0.12512164 0.75791538
0.036225453 -0.12508035 0.75766522
0.037580054 -0.12503909 0.75741529
0.038933575 -0.12499727 0.75716197
0.040285408 -0.12495305 0.75689411
0.041636284 -0.12490886 0.75662643
0.042986207 -0.12486469 0.75635892
0.044343341 -0.12484355 0.75623089
0.045720719 -0.12487898 0.75644547
0.04714169 -0.12502795 0.75734788
0.048567474 -0.12518096 0.75827467
0.049996752 -0.12533432 0.75920367
0.051429536 -0.12548807 0.76013499
0.05286584 -0.1256422 0.76106858
0.054334067 -0.12586246 0.76240283
0.055855557 -0.12619218 0.76440012
0.057474509 -0.12672091 0.7676028
0.059107084 -0.12725407 0.77083242
-0.014813797 -0.12768082 0.78196347
-0.013251319 -0.12623625 0.77311635
-0.011812488 -0.12576824 0.7702502
-0.010402601 -0.12552471 0.76875871
-0.0090017067 -0.12533145 0.76757509
-0.0076054456 -0.12514415 0.76642799
-0.0062133521 -0.12495742 0.76528436
-0.0048260302 -0.12478735 0.76424283
-0.0034452777 -0.12471905 0.76382452
-0.0020660358 -0.12465083 0.76340669
-0.00068830204 -0.12458267 0.76298928
0.0006879259 -0.12451459 0.76257229
0.0020638693 -0.12452011 0.76260614
0.0034399347 -0.12452564 0.76264
0.0048161261 -0.12453126 0.76267445
0.0061925231 -0.12453852 0.76271886
0.0075690798 -0.12454577 0.76276326
0.0089457966 -0.12455302 0.76280767
0.010322674 -0.12456027 0.76285207
0.011699712 -0.12456752 0.76289648
0.01307691 -0.12457477 0.76294088
0.014454267 -0.12458202 0.76298529
0.015831785 -0.12458927 0.76302969
0.017202955 -0.1245494 0.76278549
0.01856984 -0.12448671 0.76240158
0.019935351 -0.12442409 0.76201802
0.021299485 -0.12436152 0.76163483
0.02266225 -0.12429901 0.76125205
0.024023646 -0.12423657 0.76086962
0.025383675 -0.12417419 0.76048762
0.026740979 -0.12410557 0.76006734
0.028096525 -0.12403588 0.75964051
0.029450549 -0.12396626 0.75921416
0.030803053 -0.12389673 0.75878829
0.032174312 -0.12390532 0.75884098
0.033547342 -0.12391977 0.75892943
0.034920689 -0.12393421 0.75901788
0.036290377 -0.12393506 0.75902307
0.037647378 -0.1238941 0.75877219
0.03900348 -0.12385316 0.7585215
0.040358692 -0.12381226 0.75827098
0.041713003 -0.12377137 0.75802058
0.043066423 -0.12373053 0.75777042
0.044454344 -0.12378825 0.75812393
0.045882348 -0.12395082 0.75911963
0.047304284 -0.12408805 0.75996006
0.048726045 -0.1242171 0.76075041
0.050150767 -0.12434642 0.76154238
0.051578455 -0.12447601 0.76233602
0.053132981 -0.12489701 0.76491439
0.054741614 -0.12542066 0.76812142
0.056363788 -0.12594871 0.77135539
-0.013272204 -0.12503813 0.77433491
-0.011830058 -0.12456355 0.77139592
-0.01041527 -0.12428889 0.76969498
-0.0090130409 -0.12410264 0.76854157
-0.0076150075 -0.12391694 0.76739156
-0.0062211524 -0.12373181 0.76624507
-0.0048314552 -0.12354721 0.76510191
-0.0034482344 -0.12344679 0.76448005
-0.0020678081 -0.12337921 0.76406151
-0.00068889215 -0.12331169 0.76364338
0.00068851537 -0.12324425 0.76322573
0.0020652213 -0.12322488 0.76310575
0.0034422299 -0.12323184 0.76314884
0.0048194029 -0.12323901 0.76319331
0.0061967359 -0.12324619 0.76323777
0.007574229 -0.12325336 0.76328218
0.0089518828 -0.12326054 0.76332664
0.010329697 -0.12326773 0.76337111
0.011707673 -0.12327491 0.76341558
0.013085808 -0.12328208 0.76346004
0.014464105 -0.12328927 0.76350456
0.015842561 -0.12329645 0.76354903
0.017220173 -0.12329645 0.76354897
0.018588418 -0.12323432 0.76316428
0.019955283 -0.12317227 0.76277995
0.021320771 -0.12311026 0.76239598
0.022684887 -0.12304833 0.76201242
0.024046663 -0.12298151 0.76159865
0.025406454 -0.12291231 0.76117009
0.026764717 -0.12284319 0.76074207
0.028121451 -0.12277414 0.76031446
0.029476663 -0.12270518 0.7598874
0.030830352 -0.12263629 0.75946075
0.032186747 -0.12258357 0.75913429
0.03356031 -0.12259787 0.75922281
0.034934193 -0.12261216 0.75931138
0.036308393 -0.12262646 0.75939989
0.037682917 -0.12264076 0.75948846
0.039057761 -0.12265507 0.7595771
0.040431075 -0.12266377 0.75963098
0.041787792 -0.1226232 0.75937968
0.043211117 -0.12277444 0.76031631
0.044641618 -0.12293614 0.76131773
0.046075895 -0.12309829 0.76232183
0.047513958 -0.12326085 0.76332855
0.048948862 -0.12340628 0.76422918
0.050380334 -0.12353534 0.76502842
0.051866461 -0.12378795 0.7665928
0.053556263 -0.12450093 0.77100807
-0.013279667 -0.12371059 0.77477032
-0.011847558 -0.12335398 0.77253699
-0.01042842 -0.12305536 0.77066678
-0.0090244031 -0.12287072 0.76951045
-0.0076245936 -0.12268664 0.76835757
-0.0062289718 -0.12250311 0.76720816
-0.004837519 -0.12232012 0.76606214
-0.0034510349 -0.12216663 0.7651009
-0.0020691645 -0.1220807 0.76456273
-0.00068923662 -0.12199488 0.76402527
0.00068875257 -0.1219092 0.76348865
0.002065819 -0.12188333 0.76332659
0.0034435119 -0.12190032 0.76343304
0.0048215892 -0.12191733 0.76353955
0.0062000509 -0.12193433 0.76364607
0.0075788968 -0.12195134 0.76375258
0.0089579783 -0.12196632 0.7638464
0.010336732 -0.12197343 0.76389092
0.011715645 -0.12198054 0.76393545
0.013094719 -0.12198765 0.76397997
0.014473954 -0.12199476 0.7640245
0.015853351 -0.12200187 0.76406902
0.017232908 -0.12200899 0.76411361
0.018607032 -0.12197943 0.76392847
0.019975256 -0.12191795 0.76354343
0.021341473 -0.12185293 0.76313621
0.022705533 -0.12178422 0.76270592
0.024068054 -0.12171559 0.76227611
0.025429044 -0.12164705 0.76184684
0.026788497 -0.12157857 0.76141798
0.028146425 -0.12151018 0.76098967
0.029502822 -0.12144185 0.76056176
0.030857699 -0.12137362 0.7601344
0.03221105 -0.12130545 0.75970751
0.033573288 -0.12127494 0.75951642
0.034947705 -0.12128909 0.75960505
0.036322441 -0.12130325 0.75969368
0.037697494 -0.12131739 0.75978231
0.039083574 -0.12136478 0.76007909
0.040482711 -0.12144814 0.7606011
0.04188377 -0.1215316 0.76112384
0.043320347 -0.12170955 0.76223826
0.044776019 -0.12192854 0.76360977
0.046236932 -0.12214831 0.76498616
0.047703125 -0.12236889 0.76636755
0.049163766 -0.12256319 0.76758444
0.050612021 -0.12271682 0.76854658
0.052209694 -0.12321488 0.77166581
-0.013277562 -0.12229333 0.77464747
-0.011845684 -0.12194087 0.7724148
-0.010430404 -0.12168805 0.77081341
-0.0090258243 -0.12150148 0.76963162
-0.0076255463 -0.12131551 0.7684536
-0.0062295478 -0.1211301 0.76727915
-0.0048378105 -0.12094526 0.76610833
-0.0034508223 -0.12077878 0.76505381
-0.0020690372 -0.12069383 0.7645157
-0.0006891943 -0.12060901 0.76397836
0.00068871025 -0.12052429 0.7634418
0.0020659596 -0.1205143 0.7633785
0.0034435145 -0.12052301 0.76343364
0.0048215925 -0.12053981 0.76354009
0.0062000551 -0.12055663 0.7636466
0.0075789029 -0.12057345 0.76375318
0.0089581348 -0.12059028 0.76385975
0.010337752 -0.12060712 0.76396638
0.011717755 -0.12062395 0.76407301
0.013098143 -0.12064079 0.76417971
0.014478916 -0.12065764 0.7642864
0.015860075 -0.12067449 0.76439315
0.01724162 -0.12069134 0.7644999
0.018622648 -0.12070235 0.76456964
0.019991377 -0.12063762 0.76415962
0.021358456 -0.12057193 0.76374352
0.022724047 -0.12050632 0.7633279
0.024088154 -0.12044077 0.76291269
0.025450775 -0.12037528 0.7624979
0.026811916 -0.12030987 0.76208359
0.028171442 -0.12024396 0.76166606
0.029529031 -0.12017629 0.76123738
0.030885097 -0.12010871 0.7608093
0.032239635 -0.12004119 0.76038164
0.033592649 -0.11997375 0.75995445
0.034968525 -0.11999004 0.76005763
0.036364798 -0.12007245 0.76057965
0.037762992 -0.12015498 0.76110238
0.039163109 -0.12023761 0.76162583
0.040565148 -0.12032035 0.76214993
0.041969124 -0.12040322 0.76267487
0.04337503 -0.1204862 0.76320046
0.044826619 -0.12068705 0.76447272
0.04628928 -0.12090484 0.76585227
0.047757231 -0.12112341 0.76723677
0.04923616 -0.12135673 0.76871473
0.050775763 -0.12172271 0.77103299
0.052359458 -0.12217207 0.77387935
-0.013275457 -0.12087652 0.77452463
-0.011843811 -0.12052819 0.77229267
-0.010430959 -0.12030373 0.77085441
-0.009026167 -0.12011746 0.76966083
-0.007625835 -0.11993358 0.76848269
-0.0062297834 -0.11975028 0.76730818
-0.0048379931 -0.11956754 0.76613724
-0.0034506102 -0.11939111 0.76500678
-0.00206891 -0.11930715 0.76446873
-0.00068915199 -0.1192233 0.76393145
0.0006886737 -0.11914055 0.76340127
0.0020661107 -0.11914572 0.76343441
0.0034436674 -0.1191509 0.76346755
0.0048215962 -0.11916231 0.76354069
0.0062000602 -0.11917894 0.7636472
0.0075789089 -0.11919557 0.76375377
0.0089581423 -0.1192122 0.76386034
0.01033776 -0.11922883 0.76396692
0.011717764 -0.11924548 0.76407361
0.013098152 -0.11926212 0.76418024
0.014478927 -0.11927877 0.76428694
0.015860086 -0.11929543 0.76439369
0.017241633 -0.11931209 0.76450044
0.018619943 -0.11930557 0.7644586
0.019990321 -0.11925261 0.76411927
0.02135733 -0.11918768 0.76370323
0.022722848 -0.11912281 0.7632876
0.024086883 -0.11905802 0.76287246
0.025449434 -0.1189933 0.76245773
0.026810504 -0.11892865 0.76204348
0.028170096 -0.11886406 0.76162964
0.029528212 -0.11879955 0.76121628
0.030884856 -0.11873511 0.7608034
0.032240029 -0.11867075 0.76039094
0.033593729 -0.11860643 0.75997889
0.034984346 -0.11867239 0.76040149
0.036395472 -0.11880031 0.76122117
0.037809636 -0.1189285 0.76204252
0.039226864 -0.11905697 0.76286572
0.040647153 -0.11918572 0.76369071
0.042054821 -0.11927023 0.76423216
0.043463659 -0.11935259 0.7647599
0.044877332 -0.11944275 0.76533759
0.046341743 -0.11965853 0.76672024
0.047838934 -0.11994399 0.76854938
0.049365647 -0.12028531 0.7707364
0.050921295 -0.12067649 0.77324289
-0.013273352 -0.11946017 0.77440184
-0.011841939 -0.11911597 0.7721706
-0.010431514 -0.11891926 0.77089542
-0.0090265376 -0.11873368 0.76969242
-0.0076261237 -0.11855156 0.76851177
-0.0062300195 -0.11837037 0.7673372
-0.0048381756 -0.11818971 0.76616615
-0.0034505737 -0.11800962 0.76499867
-0.0020687829 -0.11792063 0.76442176
-0.00068910967 -0.11783776 0.76388454
0.00068872416 -0.11777183 0.76345718
0.0020662621 -0.11777694 0.76349032
0.0034439196 -0.11778206 0.76352346
0.0048216968 -0.11778717 0.7635566
0.0062000649 -0.11780123 0.76364779
0.0075789141 -0.11781766 0.76375431
0.0089581488 -0.11783411 0.76386088
0.010337768 -0.11785056 0.76396751
0.011717772 -0.117867 0.76407415
0.013098163 -0.11788346 0.76418084
0.014478938 -0.11789992 0.76428753
0.015860099 -0.11791639 0.76439428
0.017241646 -0.11793286 0.76450104
0.018617241 -0.11790919 0.76434761
0.019987423 -0.11785687 0.76400846
0.021356203 -0.11780357 0.76366293
0.02272165 -0.11773945 0.76324731
0.024085613 -0.11767542 0.76283222
0.025448093 -0.11761145 0.76241755
0.026809093 -0.11754756 0.76200336
0.028168615 -0.11748374 0.76158959
0.029526658 -0.11741997 0.76117623
0.030883232 -0.11735629 0.76076341
0.032238334 -0.11729266 0.76035094
0.033591967 -0.1172291 0.75993896
0.034989249 -0.11731689 0.76050806
0.036395513 -0.11742703 0.761222
0.037809681 -0.11755374 0.76204342
0.039226908 -0.11768073 0.76286662
0.040647201 -0.11780799 0.7636916
0.042070568 -0.11793552 0.76451832
0.043497019 -0.11806334 0.76534688
0.044926565 -0.11819143 0.76617724
0.046418644 -0.11847146 0.76799256
0.047964722 -0.1188691 0.77057022
0.04949582 -0.11920824 0.77276874
-0.013271247 -0.11804425 0.77427906
-0.01184152 -0.11771864 0.7721433
-0.010432069 -0.11753464 0.77093643
-0.0090270173 -0.11735122 0.76973331
-0.0076264129 -0.11716943 0.76854092
-0.0062302547 -0.11699034 0.76736617
-0.0048383581 -0.11681179 0.76619506
-0.0034507038 -0.11663379 0.76502752
-0.0020686558 -0.11653428 0.76437479
-0.00068906735 -0.11645238 0.76383764
0.00068877457 -0.1164029 0.76351309
0.0020664134 -0.11640796 0.76354623
0.003444172 -0.11641301 0.76357937
0.0048220502 -0.11641807 0.76361257
0.0062000691 -0.11642352 0.76364833
0.0075789201 -0.11643977 0.7637549
0.0089581553 -0.11645602 0.76386148
0.010337776 -0.11647227 0.76396811
0.011717781 -0.11648853 0.76407474
0.013098173 -0.1165048 0.76418144
0.014478949 -0.11652107 0.76428813
0.015860111 -0.11653733 0.76439482
0.017241659 -0.11655361 0.76450163
0.018614536 -0.11651322 0.76423663
0.019984523 -0.11646152 0.7638976
0.021353291 -0.11640988 0.7635588
0.022720451 -0.11635625 0.76320708
0.024084343 -0.11629297 0.76279199
0.025446752 -0.11622976 0.76237738
0.026807679 -0.11616661 0.76196319
0.02816713 -0.11610354 0.76154947
0.029525105 -0.11604053 0.76113617
0.030881606 -0.11597759 0.76072335
0.032236639 -0.11591472 0.76031101
0.033593796 -0.11586432 0.75998038
0.034994587 -0.11596246 0.76062411
0.036397759 -0.11606077 0.76126897
0.037809726 -0.11617898 0.76204431
0.039226957 -0.11630448 0.76286751
0.04064725 -0.11643026 0.7636925
0.042070616 -0.11655629 0.76451921
0.043497071 -0.11668262 0.76534778
0.044926617 -0.11680921 0.76617813
0.046419449 -0.11708786 0.76800591
0.047976039 -0.11750653 0.77075201
0.049543802 -0.1179282 0.77351785
-0.014813431 -0.11780205 0.78194416
-0.013269145 -0.1166288 0.77415639
-0.011842151 -0.11633172 0.77218443
-0.010432624 -0.11614988 0.77097744
-0.0090274969 -0.11596861 0.7697742
-0.0076267482 -0.1157879 0.76857471
-0.0062304903 -0.1156102 0.7673952
-0.0048385412 -0.11543377 0.76622403
-0.003450834 -0.11525785 0.76505637
-0.0020685287 -0.1151481 0.76432782
-0.00068902504 -0.11506718 0.76379073
0.00068882509 -0.11503379 0.76356906
0.002066565 -0.11503878 0.7636022
0.0034444244 -0.11504377 0.76363534
0.0048224032 -0.11504877 0.76366848
0.0062005026 -0.11505377 0.76370168
0.0075789252 -0.11506186 0.76375544
0.0089581627 -0.11507793 0.76386207
0.010337783 -0.11509398 0.76396865
0.01171779 -0.11511005 0.76407528
0.013098182 -0.11512613 0.76418197
0.014478959 -0.1151422 0.76428866
0.015860122 -0.11515828 0.76439542
0.017240832 -0.11516876 0.76446497
0.018611835 -0.11511765 0.7641257
0.019981623 -0.11506658 0.76378673
0.021350196 -0.11501557 0.76344812
0.022717554 -0.11496459 0.76310974
0.024083072 -0.11491066 0.76275176
0.025445411 -0.1148482 0.76233721
0.026806269 -0.11478581 0.76192307
0.02816565 -0.1147235 0.76150942
0.029523553 -0.11466124 0.76109618
0.030879984 -0.11459905 0.76068336
0.032234948 -0.11453693 0.76027107
0.033598918 -0.1145106 0.76009625
0.034999929 -0.11460762 0.76074022
0.036403317 -0.1147048 0.76138526
0.037809771 -0.11480422 0.7620452
0.039227001 -0.11492823 0.7628684
0.040647298 -0.11505252 0.76369339
0.042070664 -0.11517707 0.76452011
0.043497119 -0.11530189 0.76534867
0.044926669 -0.11542699 0.76617903
0.046421245 -0.11570668 0.76803559
0.047976874 -0.11611794 0.77076542
0.049544666 -0.11653464 0.77353138
-0.014793571 -0.1162352 0.78089583
-0.013267041 -0.11521378 0.77403367
-0.011842782 -0.11494464 0.77222556
-0.010433179 -0.11476497 0.77101845
-0.0090279756 -0.11458585 0.76981509
-0.0076271519 -0.11440728 0.76861542
-0.0062307259 -0.11422997 0.76742423
-0.0048387237 -0.11405563 0.76625293
-0.0034509641 -0.11388182 0.76508522
-0.0020684015 -0.11376209 0.76428086
-0.00068898272 -0.11368215 0.76374382
0.0006888755 -0.11366446 0.76362497
0.0020667163 -0.1136694 0.76365811
0.0034446768 -0.11367434 0.76369131
0.0048227566 -0.11367927 0.76372445
0.0062009562 -0.1136842 0.76375759
0.0075792759 -0.11368914 0.76379079
0.0089581683 -0.11369983 0.76386261
0.010337791 -0.1137157 0.76396924
0.011717799 -0.11373158 0.76407588
0.013098192 -0.11374746 0.76418257
0.01447897 -0.11376334 0.76428926
0.015860135 -0.11377922 0.76439601
0.01723833 -0.11377297 0.76435399
0.018609134 -0.11372249 0.76401484
0.019978724 -0.11367206 0.76367599
0.021347098 -0.11362165 0.76333737
0.022714261 -0.1135713 0.76299912
0.024080211 -0.11352099 0.76266116
0.02544407 -0.1134668 0.76229703
0.026804857 -0.11340516 0.76188296
0.028164165 -0.11334359 0.7614693
0.029522 -0.11328209 0.76105613
0.030878359 -0.11322065 0.76064336
0.032233249 -0.11315928 0.76023108
0.033604044 -0.11315647 0.76021218
0.035005275 -0.11325236 0.76085639
0.036408879 -0.1133484 0.76150161
0.03781487 -0.11344461 0.76214796
0.039227046 -0.11355198 0.7628693
0.040647343 -0.11367477 0.76369429
0.042070713 -0.11379784 0.764521
0.043497171 -0.11392117 0.76534957
0.044926725 -0.11404476 0.76617992
0.046427969 -0.11433754 0.76814687
0.047977712 -0.11472931 0.77077889
0.049545534 -0.11514103 0.77354491
-0.014773765 -0.11467255 0.7798503
-0.01326494 -0.11379922 0.77391106
-0.011843412 -0.11355742 0.77226669
-0.010433733 -0.11337991 0.77105945
-0.0090284552 -0.11320294 0.76985592
-0.0076275566 -0.11302652 0.76865619
-0.0062310183 -0.11285066 0.76746023
-0.0048389062 -0.11267739 0.76628184
-0.0034510943 -0.11250567 0.76511407
-0.0020682744 -0.11237624 0.76423389
-0.00068894046 -0.1122973 0.76369697
0.00068892603 -0.11229493 0.76368093
0.0020668677 -0.11229981 0.76371408
0.0034449291 -0.11230469 0.76374727
0.0048231101 -0.11230957 0.76378042
0.0062014107 -0.11231444 0.76381356
0.0075798314 -0.11231932 0.76384676
0.0089583723 -0.1123242 0.76387995
0.0103378 -0.11233742 0.76396984
0.011717808 -0.1123531 0.76407647
0.013098202 -0.11236878 0.7641831
0.014478981 -0.11238448 0.76428986
0.015860146 -0.11240017 0.76439655
0.017235827 -0.11237758 0.76424301
0.018606436 -0.11232773 0.76390398
0.019975826 -0.11227792 0.76356518
0.021344004 -0.11222816 0.76322675
0.02271097 -0.11217842 0.76288855
0.024076724 -0.11212874 0.76255071
0.025441268 -0.11207911 0.76221311
0.026803445 -0.11202466 0.76184285
0.028162684 -0.11196384 0.76142925
0.029520446 -0.11190309 0.76101607
0.030876735 -0.1118424 0.76060337
0.032231558 -0.11178178 0.76019114
0.03360917 -0.11180194 0.76032817
0.035010621 -0.11189669 0.76097256
0.036414444 -0.11199159 0.76161796
0.037820656 -0.11208667 0.76226455
0.039229255 -0.1121819 0.76291221
0.040647391 -0.11229704 0.76369518
0.042070761 -0.1124186 0.7645219
0.043497223 -0.11254043 0.76535046
0.044926777 -0.11266253 0.76618081
0.0464347 -0.112968 0.76825821
0.047978546 -0.11334062 0.77079231
